"x coordinate" "y coordinate" "cell_area (m2)" 
 145736.396400  426691.371606     181.940521
 145763.884614  426708.296864      36.962200
 145766.693973  426711.811085      10.506898
 145770.445190  426716.503797     122.087910
 145783.121077  426817.485460     232.160303
 145805.535886  426775.099652     265.743514
 145110.530998  426791.188000     252.501969
 145083.737541  426834.464805      84.728883
 145066.386000  426863.494222     131.827761
 145379.688000  426369.594000     292.975660
 145321.216344  426473.272697     238.649644
 145257.188478  426573.892883     198.596533
 144910.969000  427112.719000     195.408149
 144908.750301  427111.563410      12.011826
 144899.988776  427107.961855     155.548151
 144766.427164  427054.231592     292.075854
 145749.971000  427091.442000     222.116794
 145649.807789  427079.961807     110.674396
 145640.016000  427078.844000     172.218736
 144256.922000  426034.188000     157.395757
 144256.424647  426039.566088      12.570466
 144255.764274  426046.705040      99.755146
 144255.814597  426139.268970     185.171430
 144255.029249  426231.843614     187.475360
 144194.863148  426253.153670     189.779292
 145445.578000  426992.313000      63.261753
 145430.649557  427010.204420      43.076697
 145418.610378  427025.809102      21.103008
 145764.719000  426530.625000     108.927396
 145749.568413  426582.938340      57.923634
 145748.592153  426586.257688      13.045764
 145746.002025  426595.472635      22.101722
 145742.403337  426607.460006      15.637502
 145741.505782  426610.449794      15.949732
 145737.817802  426622.736354      49.606080
 145751.096839  426654.719847      40.150886
 145753.115790  426657.421790      97.673947
 146053.236000  427752.064000     138.917560
 146049.175904  427752.546370      12.278933
 146041.390498  427754.926732       9.710458
 146039.969975  427755.468070       9.472145
 146032.547858  427758.319336      55.355111
 145518.500000  426899.125000     196.107884
 145416.732687  426871.528955     211.127706
 145314.380061  426845.709769     211.127708
 145212.073485  426819.689288     211.127710
 144881.328000  426009.125000     196.152968
 144971.025050  426019.412533     196.152968
 145059.161776  426033.501698     196.152968
 145116.231530  426108.107080     105.791410
 145114.927636  426115.694234      17.997722
 145111.512528  426125.392302      20.159070
 145107.310707  426134.330170      19.245964
 145103.324579  426142.809668      19.352304
 145099.078000  426151.844000      25.469368
 145093.037200  426166.104024      25.353956
 145089.147466  426175.171697      21.772418
 145084.205816  426186.002601      29.012826
 145076.855636  426201.450746      33.525064
 145069.980693  426216.358018      23.801234
 145066.974218  426223.102001      31.820163
 145057.141000  426245.469000     141.469173
 144774.192000  426463.246000     140.680822
 144719.223393  426395.676082     174.309012
 144675.343000  426327.121001     101.181016
 144665.339061  426317.289206     105.530678
 144595.325992  426258.399661     183.008338
 144547.590458  426195.972833     183.008338
 144586.193051  426116.027583     102.707024
 144575.572540  426112.462651     157.363308
 144436.078000  426068.844000     294.298099
 145496.594000  426106.344000     221.584948
 145456.318071  426209.012009     119.070756
 145452.715624  426216.464951       9.182756
 145452.325273  426217.280855       9.347270
 145448.681548  426224.896896      10.601267
 145447.750000  426226.844000     113.059903
 146065.602254  427639.875973     225.735045
 146077.969000  427527.688000     185.208833
 145510.078000  426909.156000      24.019803
 145514.896652  426903.416569      13.097749
 145216.328000  426630.969000     234.515752
 145162.772878  426710.672988     192.060591
 144683.328000  425882.094000     197.365054
 144656.001423  425976.136510     219.103914
 144538.900009  425965.833647     236.077164
 144440.954610  425925.248795     136.861140
 144422.237558  425923.258656      20.794916
 144420.276255  425923.050115      20.493032
 144401.859395  425921.091895     119.893980
 144450.785350  425968.566493     202.746613
 145678.719000  427007.781000     245.703923
 145461.161492  426968.304977      44.728982
 145470.652830  426956.336033      57.948329
 145497.154674  426922.890313      57.931042
 145507.034249  426911.374903      19.024910
 144769.923126  426469.694038      15.470246
 146580.719000  427094.531000     153.464896
 146597.504442  427169.394076     153.464899
 146618.601332  427243.093294     194.571775
 145056.351892  426247.087540       9.008624
 145053.193120  426253.566503       8.513722
 145052.643765  426254.750736      42.564450
 145037.109000  426292.779999      84.247489
 145017.132022  426330.631167      48.155764
 145014.769652  426335.226469      25.351125
 145005.280471  426353.040251      26.538330
 145002.270689  426358.636389      59.938992
 144976.923954  426405.818870      63.920544
 144972.222335  426415.023328      33.797875
 144961.000000  426435.625000      29.636809
 145531.813000  426924.219000     152.137534
 145520.565053  426916.423458      26.444360
 145570.672087  426980.013876     226.747376
 146754.813000  428554.688000      61.422082
 146741.495206  428527.269014      37.957092
 146737.906243  428520.974206      61.013943
 146709.948085  428475.069386      61.557512
 146705.569234  428468.627380      37.215248
 146688.933025  428444.355913      34.476974
 146686.077433  428440.189176      12.459260
 146681.889458  428434.078689      17.109848
 146676.404585  428426.075958      25.984508
 146667.180132  428412.658410      26.157042
 146661.563103  428404.537197      46.895838
 146640.685267  428373.965839      44.304874
 146636.645539  428367.905308      44.964734
 146616.155337  428336.283004      44.894323
 146612.126979  428330.299961      42.530364
 146591.865371  428301.382371      49.749149
 146583.231814  428289.817736      35.277680
 146570.722116  428273.143547      34.578530
 146562.072243  428262.483292      60.444100
 146528.915413  428229.661644      51.643562
 146525.194566  428226.424085      27.107946
 146508.463732  428211.869246      32.895824
 146500.375862  428204.833180      39.345986
 146477.842880  428187.246831      36.595632
 146471.002711  428183.158425      36.226058
 146446.247105  428169.542818      29.901545
 146444.799000  428168.762000       8.070453
 144075.203000  426051.375000      12.898096
 144080.309977  426049.575067       8.418490
 144082.278856  426049.527989       7.038272
 144087.346232  426049.406581      90.358690
 144172.374258  426042.823045     170.579722
 144390.456358  426058.573260      82.880993
 144355.155998  426050.938000      72.803697
 144932.691000  426493.221000     144.322381
 144928.094361  426490.643855       6.767679
 144926.787775  426489.911406       6.185398
 144922.698994  426487.619095     107.417695
 144877.624667  426409.716951     205.460356
 144807.317540  426418.608336     112.609456
 144800.685869  426425.930977      55.670471
 145569.864823  427112.555608     162.439390
 145549.503296  427108.668264     226.134310
 144743.724460  425849.749103     192.599446
 144834.892593  425880.537435     116.024694
 144853.708439  425886.456758      21.710866
 144855.602802  425887.052722      22.531466
 144875.201588  425893.217785     118.210300
 144968.015746  425923.586815     195.329460
 145060.815742  425954.025375     195.329458
 145153.568049  425984.605335     195.329458
 145244.579276  426019.970934     195.329460
 145322.394371  426078.572967     195.329459
 145392.427305  426146.411632     195.329459
 146109.200464  427906.712832     147.459611
 146089.052339  427915.447512      46.255673
 146065.854152  427919.434890     102.136574
 146720.359000  427458.844000     134.505689
 146684.891825  427537.173882      94.221566
 146677.710770  427537.573303       8.535596
 146676.369402  427537.647912       8.362861
 146669.383570  427538.286192     251.583026
 145623.766000  426766.063000     169.880620
 145572.214018  426833.333810     169.880622
 145441.567825  426238.534647      25.461071
 145436.250085  426249.541774      86.524523
 145163.871375  426288.787766     230.464268
 145272.177301  426328.131645     230.464270
 145120.638478  426587.359603     210.319762
 145025.272387  426543.048333     210.319764
 146306.125000  426990.719000     207.227228
 146306.083558  426902.789192     207.227228
 146218.623791  426862.089227     105.776148
 146218.206375  426864.211093      17.320575
 146205.295448  426865.434848     118.768574
 145735.579435  426691.248337      58.079376
 145732.704477  426690.846292     105.171706
 145661.542626  426754.998255     122.102658
 145650.504359  426771.475763     168.482560
 145559.439853  426888.944555     168.379964
 145547.498372  426904.651073      44.809860
 144319.347637  426042.956741     103.391903
 144958.107808  426441.080426      16.636650
 144953.834513  426450.627595      13.296766
 144952.691921  426453.221906      13.695594
 144948.244496  426463.128837      44.753517
 145015.626393  426947.321669     196.013388
 144964.703604  427031.054980     196.013388
 145417.758906  427026.912744     101.794856
 145356.028976  427106.089459     117.644884
 145344.637828  427119.035326      79.559680
 145303.873941  427166.167961      77.071922
 145294.239974  427177.345259      64.214908
 145262.163549  427214.989304      64.454095
 145252.598927  427226.538309      31.641753
 145242.305102  427237.344510      46.701154
 145403.949030  426316.453153     132.718856
 146067.699658  426807.622630     215.785241
 145972.744970  426795.401519     200.954566
 145925.677417  426816.646915      67.425714
 145924.590620  426820.434541      37.813560
 145914.566757  426852.780198      55.335110
 145906.350721  426872.607319      39.291768
 145896.601918  426887.475394      23.449592
 145893.106817  426891.876170      24.629526
 145881.284271  426906.762261     132.452392
 145812.520250  426996.982913     226.885403
 146085.060105  427455.696839     148.601273
 146088.455420  427381.214344     225.296395
 146248.546594  427687.927275     139.270691
 146200.687249  427682.620199      98.664286
 146152.003736  427675.641086     169.953596
 146439.126026  428165.745604      16.550608
 146430.134809  428161.089335      23.585846
 146418.189800  428154.884546      61.512562
 146375.903381  428132.064281      55.947625
 146368.978476  428128.271465      39.561174
 146341.767585  428112.079768      39.778911
 146334.808296  428107.909186      34.697732
 146312.483603  428093.481375      32.032738
 146307.967607  428090.434794      47.866874
 146272.888997  428066.618549      50.102324
 146266.202158  428062.833562      66.510436
 146215.208625  428033.536633      67.357572
 146208.312819  428028.517325      34.561060
 146188.508155  428011.635458      34.905510
 146182.395659  428005.213849      41.898426
 146160.993553  427980.064832      41.806666
 146155.240421  427973.427618      17.547540
 146149.500306  427966.805065      18.518228
 146143.219474  427959.345482      65.154392
 146111.817208  427913.842047      58.877750
 146110.114594  427910.809732       9.469574
 146771.562320  427453.023282      17.065800
 146763.060341  427453.749041      13.480416
 146758.130816  427454.170370       5.116390
 146757.962556  427454.184756       5.084854
 146753.064352  427454.602445      37.899488
 145235.705393  426603.856074      70.272609
 145734.439416  426906.797662     213.829071
 145703.186214  426962.833012     115.352289
 145826.999152  427128.564758      80.519128
 145757.774963  427092.336704      86.912193
 146005.856298  427277.987736     180.060168
 145980.230365  427260.777675      41.239116
 145971.214565  427255.974620     128.093320
 145879.682632  427181.944862     139.629133
 145864.290767  427166.585313      48.839900
 145846.023592  427146.615396      38.957123
 145344.541642  426598.898030      97.073864
 145297.878871  426585.540650      90.861612
 145213.849242  427227.708296     123.047944
 145168.621112  427222.183368     187.893014
 145091.951677  427169.708680     189.799708
 145001.591715  427140.867686     189.799707
 145276.817384  427238.698182     139.524622
 145286.448748  427227.614567      19.284398
 145289.466488  427224.141803      63.242768
 145327.931212  427179.877235      63.788812
 145331.307115  427175.992301      68.429266
 145372.815625  427128.224994      71.332270
 145378.095678  427122.148796      94.671401
 145434.912890  427056.764489     164.748513
 145452.171948  427003.325840     147.329858
 145450.758361  427001.377839      12.855907
 146184.076185  426863.547930      26.743274
 146178.656820  426863.092931      24.549055
 146159.819362  426860.714814      97.426552
 146093.360386  426821.060131     156.631856
 146238.593608  426940.704094     164.611382
 145484.353055  427117.258152     136.239430
 145521.127748  427162.254682      93.813810
 145530.941083  427196.580768      74.005511
 145541.469898  427233.409532     114.843305
 145517.253054  427306.016522     201.380048
 145397.035218  427272.357352     249.681938
 146684.469795  427340.096680     234.181742
 146758.249998  427412.313000     117.839324
 146757.269912  427413.444441       5.978032
 146754.335800  427416.831398       4.886574
 146754.070318  427417.137841       4.925488
 146751.111211  427420.554629      37.688732
 146729.571363  427445.674673      34.747600
 146728.666326  427446.968450      16.071677
 146591.128586  427583.741751     182.235986
 146513.825382  427631.753365     182.235988
 146425.472943  427652.387171     182.235988
 146337.768190  427676.320048     182.235991
 146614.003674  427288.651350     212.504492
 146648.527841  427389.138273     106.669378
 146648.663378  427389.532772      38.336401
 146660.984352  427425.394514     100.040047
 146665.593441  427487.344069     113.203700
 146694.403598  427741.476942     195.154571
 146681.893584  427639.881568     204.725383
 146809.917946  427994.754326     185.583760
 146771.413163  427910.328532     185.583760
 146732.908381  427825.902737     185.583761
 146016.924078  427767.182792      35.945740
 146014.391516  427707.043610      34.208935
 146021.292617  427726.533163      24.965067
 146022.724478  427730.576912      33.720042
 145899.361504  427568.606282      47.383875
 145902.518348  427572.405508       9.503812
 145905.435269  427575.915990      20.588818
 145915.676398  427588.241074      19.620456
 145917.974451  427591.006755      21.379412
 145929.339707  427604.684713      22.060708
 145932.073168  427607.974402      33.932118
 145951.025290  427630.783068      33.994344
 145953.798518  427634.120617      38.388086
 145975.558625  427660.308661      39.465214
 145979.020232  427664.474666      41.975542
 146002.384657  427692.593490      41.812930
 146005.742340  427696.634424      18.787513
 145803.699748  427526.091506      33.954232
 145819.213727  427532.986355      21.365590
 145823.223989  427534.768628      41.605263
 145857.233327  427549.883335      40.873852
 145860.575213  427551.368563      46.101324
 146041.295893  427857.314600     155.813102
 146050.282664  427779.929037      83.966344
 146050.913988  427773.902221      28.021180
 146138.662654  427794.335685     238.884010
 145837.779143  427138.092305      24.820623
 145828.121442  427129.501754      14.414225
