"x coordinate" "y coordinate" "Water depth at pressure points (m)" 
 145736.396400  426691.371606       1.752547
 145763.884614  426708.296864       1.752541
 145766.693973  426711.811085       1.751885
 145770.445190  426716.503797       1.751884
 145783.121077  426817.485460       1.751888
 145805.535886  426775.099652       1.751999
 145110.530998  426791.188000       2.831294
 145083.737541  426834.464805       2.621137
 145066.386000  426863.494222       2.620941
 145379.688000  426369.594000       2.231588
 145321.216344  426473.272697       2.231480
 145257.188478  426573.892883       2.231289
 144910.969000  427112.719000       2.700810
 144908.750301  427111.563410       2.650754
 144899.988776  427107.961855       2.653421
 144766.427164  427054.231592       0.857945
 145749.971000  427091.442000       2.312558
 145649.807789  427079.961807       2.310605
 145640.016000  427078.844000       2.320721
 144256.922000  426034.188000       1.989659
 144256.424647  426039.566088       1.989408
 144255.764274  426046.705040       1.774800
 144255.814597  426139.268970       1.774166
 144255.029249  426231.843614       1.774248
 144194.863148  426253.153670       0.640437
 145445.578000  426992.313000       2.412362
 145430.649557  427010.204420       2.302342
 145418.610378  427025.809102       2.302399
 145764.719000  426530.625000       1.702695
 145749.568413  426582.938340       1.702694
 145748.592153  426586.257688       1.702637
 145746.002025  426595.472635       1.702637
 145742.403337  426607.460006       1.702637
 145741.505782  426610.449794       1.702570
 145737.817802  426622.736354       1.702570
 145751.096839  426654.719847       1.702570
 145753.115790  426657.421790       1.702550
 146053.236000  427752.064000       2.540001
 146049.175904  427752.546370       2.349858
 146041.390498  427754.926732       2.518736
 146039.969975  427755.468070       2.274523
 146032.547858  427758.319336       1.987617
 145518.500000  426899.125000       2.451841
 145416.732687  426871.528955       2.466054
 145314.380061  426845.709769       2.486600
 145212.073485  426819.689288       2.507226
 144881.328000  426009.125000       1.692127
 144971.025050  426019.412533       1.692126
 145059.161776  426033.501698       1.692122
 145116.231530  426108.107080       1.782111
 145114.927636  426115.694234       1.772057
 145111.512528  426125.392302       1.772056
 145107.310707  426134.330170       1.781987
 145103.324579  426142.809668       1.841988
 145099.078000  426151.844000       1.791912
 145093.037200  426166.104024       1.811911
 145089.147466  426175.171697       1.831828
 145084.205816  426186.002601       1.821827
 145076.855636  426201.450746       1.841703
 145069.980693  426216.358018       1.821703
 145066.974218  426223.102001       1.811613
 145057.141000  426245.469000       2.231608
 144774.192000  426463.246000       1.754175
 144719.223393  426395.676082       1.261100
 144675.343000  426327.121001       1.840397
 144665.339061  426317.289206       1.829966
 144595.325992  426258.399661       1.639346
 144547.590458  426195.972833       1.669355
 144586.193051  426116.027583       1.668929
 144575.572540  426112.462651       1.662212
 144436.078000  426068.844000       1.661629
 145496.594000  426106.344000       1.841732
 145456.318071  426209.012009       2.089110
 145452.715624  426216.464951       2.531767
 145452.325273  426217.280855       2.161766
 145448.681548  426224.896896       2.101754
 145447.750000  426226.844000       2.231751
 146065.602254  427639.875973       2.081577
 146077.969000  427527.688000       2.612733
 145510.078000  426909.156000       2.412012
 145514.896652  426903.416569       2.301841
 145216.328000  426630.969000       2.831218
 145162.772878  426710.672988       2.831300
 144683.328000  425882.094000       2.232198
 144656.001423  425976.136510       1.602795
 144538.900009  425965.833647       1.602795
 144440.954610  425925.248795       1.602787
 144422.237558  425923.258656       1.602783
 144420.276255  425923.050115       1.581785
 144401.859395  425921.091895       1.581782
 144450.785350  425968.566493       1.581726
 145678.719000  427007.781000       2.562075
 145461.161492  426968.304977       2.412424
 145470.652830  426956.336033       2.412427
 145497.154674  426922.890313       2.412445
 145507.034249  426911.374903       2.412012
 144769.923126  426469.694038       0.223722
 146580.719000  427094.531000       2.135445
 146597.504442  427169.394076       2.135443
 146618.601332  427243.093294       2.135438
 145056.351892  426247.087540       1.711608
 145053.193120  426253.566503       1.721153
 145052.643765  426254.750736       1.691154
 145037.109000  426292.779999       1.700234
 145017.132022  426330.631167       1.690252
 145014.769652  426335.226469       1.689605
 145005.280471  426353.040251       1.689611
 145002.270689  426358.636389       1.689263
 144976.923954  426405.818870       1.819266
 144972.222335  426415.023328       1.809116
 144961.000000  426435.625000       1.689116
 145531.813000  426924.219000       2.562096
 145520.565053  426916.423458       2.302067
 145570.672087  426980.013876       2.562085
 146754.813000  428554.688000       1.781769
 146741.495206  428527.269014       2.191768
 146737.906243  428520.974206       2.202241
 146709.948085  428475.069386       2.252240
 146705.569234  428468.627380       2.214652
 146688.933025  428444.355913       2.134651
 146686.077433  428440.189176       2.098543
 146681.889458  428434.078689       2.028543
 146676.404585  428426.075958       2.063881
 146667.180132  428412.658410       2.213880
 146661.563103  428404.537197       2.181050
 146640.685267  428373.965839       2.161048
 146636.645539  428367.905308       2.231047
 146616.155337  428336.283004       2.191045
 146612.126979  428330.299961       2.184659
 146591.865371  428301.382371       2.284656
 146583.231814  428289.817736       2.255722
 146570.722116  428273.143547       2.345721
 146562.072243  428262.483292       2.449728
 146528.915413  428229.661644       2.249724
 146525.194566  428226.424085       2.342276
 146508.463732  428211.869246       2.302273
 146500.375862  428204.833180       2.370013
 146477.842880  428187.246831       2.430137
 146471.002711  428183.158425       2.405053
 146446.247105  428169.542818       1.805051
 146444.799000  428168.762000       2.375074
 144075.203000  426051.375000       1.570498
 144080.309977  426049.575067       1.690498
 144082.278856  426049.527989       1.630498
 144087.346232  426049.406581       1.570497
 144172.374258  426042.823045       1.570488
 144390.456358  426058.573260       1.581632
 144355.155998  426050.938000       1.580514
 144932.691000  426493.221000       2.177495
 144928.094361  426490.643855       2.177251
 144926.787775  426489.911406       2.163223
 144922.698994  426487.619095       2.163181
 144877.624667  426409.716951       2.163193
 144807.317540  426418.608336       2.160854
 144800.685869  426425.930977       1.755189
 145569.864823  427112.555608       2.322269
 145549.503296  427108.668264       2.322130
 144743.724460  425849.749103       2.232198
 144834.892593  425880.537435       2.232196
 144853.708439  425886.456758       2.232196
 144855.602802  425887.052722       2.231916
 144875.201588  425893.217785       2.231915
 144968.015746  425923.586815       2.231904
 145060.815742  425954.025375       2.231884
 145153.568049  425984.605335       2.231859
 145244.579276  426019.970934       2.231836
 145322.394371  426078.572967       2.231812
 145392.427305  426146.411632       2.231778
 146109.200464  427906.712832       2.592056
 146089.052339  427915.447512       2.592049
 146065.854152  427919.434890       2.632054
 146720.359000  427458.844000       2.132214
 146684.891825  427537.173882       2.132228
 146677.710770  427537.573303       2.132228
 146676.369402  427537.647912       2.132187
 146669.383570  427538.286192       2.662187
 145623.766000  426766.063000       2.302064
 145572.214018  426833.333810       2.302062
 145441.567825  426238.534647       1.241734
 145436.250085  426249.541774       2.231674
 145163.871375  426288.787766       2.231597
 145272.177301  426328.131645       2.231591
 145120.638478  426587.359603       1.679868
 145025.272387  426543.048333       1.682087
 146306.125000  426990.719000       1.661390
 146306.083558  426902.789192       1.724892
 146218.623791  426862.089227       1.951409
 146218.206375  426864.211093       1.961147
 146205.295448  426865.434848       2.031146
 145735.579435  426691.248337       1.752550
 145732.704477  426690.846292       1.752550
 145661.542626  426754.998255       1.896098
 145650.504359  426771.475763       1.891625
 145559.439853  426888.944555       1.864799
 145547.498372  426904.651073       1.862105
 144319.347637  426042.956741       1.733796
 144958.107808  426441.080426       1.689116
 144953.834513  426450.627595       1.689113
 144952.691921  426453.221906       1.687436
 144948.244496  426463.128837       1.687430
 145015.626393  426947.321669       2.659022
 144964.703604  427031.054980       2.700698
 145417.758906  427026.912744       1.902398
 145356.028976  427106.089459       1.902385
 145344.637828  427119.035326       1.902190
 145303.873941  427166.167961       1.902185
 145294.239974  427177.345259       1.901682
 145262.163549  427214.989304       1.901685
 145252.598927  427226.538309       1.900805
 145242.305102  427237.344510       2.010805
 145403.949030  426316.453153       2.231642
 146067.699658  426807.622630       2.029402
 145972.744970  426795.401519       1.687531
 145925.677417  426816.646915       2.066105
 145924.590620  426820.434541       1.762731
 145914.566757  426852.780198       1.862433
 145906.350721  426872.607319       1.913345
 145896.601918  426887.475394       1.936238
 145893.106817  426891.876170       1.932737
 145881.284271  426906.762261       1.957044
 145812.520250  426996.982913       2.082729
 146085.060105  427455.696839       2.612898
 146088.455420  427381.214344       2.612942
 146248.546594  427687.927275       3.642171
 146200.687249  427682.620199       2.452107
 146152.003736  427675.641086       2.452226
 146439.126026  428165.745604       2.291518
 146430.134809  428161.089335       2.322022
 146418.189800  428154.884546       2.211100
 146375.903381  428132.064281       2.191749
 146368.978476  428128.271465       2.206741
 146341.767585  428112.079768       2.166904
 146334.808296  428107.909186       2.206573
 146312.483603  428093.481375       2.166861
 146307.967607  428090.434794       2.093831
 146272.888997  428066.618549       2.104043
 146266.202158  428062.833562       2.092840
 146215.208625  428033.536633       2.013047
 146208.312819  428028.517325       1.935564
 146188.508155  428011.635458       2.095799
 146182.395659  428005.213849       2.029436
 146160.993553  427980.064832       2.129742
 146155.240421  427973.427618       2.084457
 146149.500306  427966.805065       1.904722
 146143.219474  427959.345482       1.828713
 146111.817208  427913.842047       1.649285
 146110.114594  427910.809732       1.622058
 146771.562320  427453.023282       1.130000
 146763.060341  427453.749041       1.922211
 146758.130816  427454.170370       1.922211
 146757.962556  427454.184756       1.952211
 146753.064352  427454.602445       1.922211
 145235.705393  426603.856074       2.231237
 145734.439416  426906.797662       1.902105
 145703.186214  426962.833012       1.902116
 145826.999152  427128.564758       2.312135
 145757.774963  427092.336704       2.312341
 146005.856298  427277.987736       2.192934
 145980.230365  427260.777675       2.192958
 145971.214565  427255.974620       2.197778
 145879.682632  427181.944862       2.307826
 145864.290767  427166.585313       2.307833
 145846.023592  427146.615396       2.307578
 145344.541642  426598.898030       1.841333
 145297.878871  426585.540650       1.841310
 145213.849242  427227.708296       2.010804
 145168.621112  427222.183368       2.060797
 145091.951677  427169.708680       2.060793
 145001.591715  427140.867686       2.060800
 145276.817384  427238.698182       0.000000
 145286.448748  427227.614567       0.000000
 145289.466488  427224.141803       0.000000
 145327.931212  427179.877235       0.000000
 145331.307115  427175.992301       0.000000
 145372.815625  427128.224994       0.000000
 145378.095678  427122.148796       0.000000
 145434.912890  427056.764489       0.000000
 145452.171948  427003.325840       2.322138
 145450.758361  427001.377839       2.322339
 146184.076185  426863.547930       2.031135
 146178.656820  426863.092931       2.030140
 146159.819362  426860.714814       2.030138
 146093.360386  426821.060131       2.029933
 146238.593608  426940.704094       1.671161
 145484.353055  427117.258152       0.000000
 145521.127748  427162.254682       0.000000
 145530.941083  427196.580768       0.000000
 145541.469898  427233.409532       0.000000
 145517.253054  427306.016522       0.000000
 145397.035218  427272.357352       0.000000
 146684.469795  427340.096680       2.125418
 146758.249998  427412.313000       2.125391
 146757.269912  427413.444441       2.125391
 146754.335800  427416.831398       2.125387
 146754.070318  427417.137841       2.122764
 146751.111211  427420.554629       2.122763
 146729.571363  427445.674673       2.122763
 146728.666326  427446.968450       2.122216
 146591.128586  427583.741751       3.033186
 146513.825382  427631.753365       3.486475
 146425.472943  427652.387171       3.642139
 146337.768190  427676.320048       3.642263
 146614.003674  427288.651350       0.712243
 146648.527841  427389.138273       1.552220
 146648.663378  427389.532772       1.612160
 146660.984352  427425.394514       2.312171
 146665.593441  427487.344069       2.312180
 146694.403598  427741.476942       2.412178
 146681.893584  427639.881568       2.412173
 146809.917946  427994.754326       2.352201
 146771.413163  427910.328532       2.352197
 146732.908381  427825.902737       2.352188
 146016.924078  427767.182792       0.591537
 146014.391516  427707.043610       1.617339
 146021.292617  427726.533163       1.617336
 146022.724478  427730.576912       1.617374
 145899.361504  427568.606282       1.617000
 145902.518348  427572.405508       1.617000
 145905.435269  427575.915990       1.616998
 145915.676398  427588.241074       1.616997
 145917.974451  427591.006755       1.617020
 145929.339707  427604.684713       1.617018
 145932.073168  427607.974402       1.617081
 145951.025290  427630.783068       1.617078
 145953.798518  427634.120617       1.617206
 145975.558625  427660.308661       1.617202
 145979.020232  427664.474666       1.617280
 146002.384657  427692.593490       1.617276
 146005.742340  427696.634424       1.617341
 145803.699748  427526.091506       1.267018
 145819.213727  427532.986355       1.267018
 145823.223989  427534.768628       1.267013
 145857.233327  427549.883335       1.267009
 145860.575213  427551.368563       1.267004
 146041.295893  427857.314600       2.603604
 146050.282664  427779.929037       2.552249
 146050.913988  427773.902221       2.546281
 146138.662654  427794.335685       2.352166
 145837.779143  427138.092305       2.307593
 145828.121442  427129.501754       2.312133
